ply
format ascii 1.0
element vertex 724
property float x
property float y
property float z
property float nx
property float ny
property float nz
property uchar red
property uchar green
property uchar blue
end_header
-0.094379425 0.06 0.01 0.86273324 -0.09385622 0.49687257 47 39 35
-0.09 0.06 0.005620591 0.31579313 -0.044071745 0.947804 47 39 35
-0.09477592 0.06 0.02 0.95229244 -0.30183703 0.045094848 50 42 40
-0.09378647 0.06 0.03 -0.8035574 -0.086563714 -0.58889914 42 33 28
-0.09 0.06 0.027685132 -0.10181266 0.052439615 -0.9934205 42 33 28
-0.09 0.05449913 0.03 -0.7127283 -0.16702935 -0.6812632 62 51 49
-0.093429334 0.06 0.04 -0.099365786 0.79461396 -0.5989283 56 40 34
-0.09 0.05874855 0.04 -0.96343017 0.0024944197 -0.2679479 56 40 34
-0.09 0.06 0.038892567 -0.8711143 0.10750145 0.47916934 56 40 34
-0.09 0.06 0.040939655 -0.22640575 0.68245804 -0.69497585 56 40 34
-0.09794762 0.06 0.08 -0.890713 -0.3262994 -0.31647924 48 36 31
-0.092852175 0.06 0.1 0.72208345 0.50369066 0.47422695 53 28 15
-0.09 0.057147827 0.1 -0.4006041 0.81912005 0.41055897 53 28 15
-0.09 0.06 0.09714783 0.33069292 0.39235675 0.85831136 53 28 15
-0.09732544 0.06 0.11 -0.6404956 -0.67831826 -0.3600691 70 34 18
-0.09 0.06 0.10285217 0.18049613 0.43572888 -0.88179445 53 28 15
-0.09 0.05604538 0.13 -0.21163361 0.59694266 0.7738673 62 34 24
-0.09 0.06 0.1260454 0.014930913 0.32940373 0.9440711 62 34 24
-0.09 0.06 0.14800319 -0.34868687 -0.8447043 -0.4060692 89 65 57
-0.09 0.05362976 0.22 0.22475727 -0.7529393 0.6185197 35 30 24
-0.09586311 0.06 0.22 -0.8432223 -0.1460152 0.5173545 46 35 30
-0.09 0.06 0.22609061 0.04116297 0.15364963 0.9872677 50 39 32
-0.09 0.06 0.2358855 0.2768174 0.2587019 -0.9254434 65 43 25
-0.09 0.06 0.31569076 0.0050871284 -0.24627432 0.96918684 46 30 16
-0.09 0.06 0.37415513 -0.007856498 0.034851924 -0.99936163 60 39 23
-0.09383446 0.07 0.01 0.9161191 -0.22541459 0.33153287 39 32 28
-0.09 0.07 0.006165576 0.2710366 -0.06252897 0.96053594 39 32 28
-0.09 0.07 0.01801287 0.57376754 -0.20935138 -0.79180986 39 33 29
-0.09 0.06855652 0.02 0.5993765 -0.2327528 -0.7658812 39 33 29
-0.09376785 0.06390625 0.036305662 0.0 0.9830745 0.18320638 56 40 34
-0.09 0.07 0.031502597 -0.38203466 -0.53485656 0.7536431 42 30 24
-0.09 0.07 0.049818005 0.27979282 0.70917827 -0.6471338 61 39 31
-0.09 0.0698674 0.07 0.06379426 0.8939033 0.4436971 53 47 45
-0.09 0.07 0.06959889 -0.6058495 0.6298415 0.48605156 53 47 45
-0.09236854 0.06760025 0.07096365 0.0 0.7327995 -0.68044466 53 47 45
-0.09 0.06536484 0.08 -0.36098194 0.93029886 0.065085046 75 28 8
-0.09368553 0.07 0.08 0.9473208 0.23732837 -0.21507788 75 28 8
-0.09 0.06658455 0.09 0.05175524 0.94324684 0.32803482 64 29 10
-0.093415454 0.07 0.09 0.9182627 0.2960005 0.26301578 64 29 10
-0.09441658 0.07 0.11 0.9530558 0.18611562 -0.23884216 90 60 46
-0.09 0.06558342 0.11 0.033282176 0.99014044 -0.13606681 90 60 46
-0.09 0.06579727 0.12 0.029793043 0.9647806 0.26136318 64 34 24
-0.09420273 0.07 0.12 0.98956126 -0.054996934 0.13320604 64 34 24
-0.09944992 0.07 0.14 -0.45964563 -0.6905083 -0.5585017 72 31 16
-0.09 0.07 0.13338622 -0.1548461 -0.4104482 -0.89864063 80 54 42
-0.09 0.062358398 0.14 -0.50906706 -0.7621441 -0.39998394 70 62 60
-0.09 0.061795656 0.21 -0.1932874 0.9668884 0.1666337 55 36 31
-0.09 0.07 0.20594937 -0.059113465 -0.1933956 0.9793384 64 39 32
-0.09366714 0.07 0.22 0.9657682 0.24690181 0.07956902 60 46 41
-0.09 0.066332854 0.22 -0.141283 0.95987236 0.24224803 60 46 41
-0.09 0.06432434 0.24 0.24325761 0.79571396 -0.55467564 65 43 25
-0.097407915 0.07 0.25 0.34064692 0.4720889 -0.8130755 57 48 43
-0.09 0.06730148 0.25 0.34297866 0.78428245 -0.51697844 54 43 39
-0.09 0.07 0.25172082 0.08561326 0.14325131 -0.9859764 54 43 39
-0.09747711 0.07 0.31 -0.896662 -0.30859286 0.31743926 41 34 32
-0.09 0.06430923 0.32 -0.30350387 -0.6839007 0.6634495 46 30 16
-0.095809706 0.07 0.32 -0.8123764 0.44650412 0.37507156 40 24 13
-0.09 0.07 0.32509997 -0.40982658 -0.056662578 0.9104019 99 52 21
-0.09584312 0.07 0.36 -0.88049227 0.47202814 -0.04384952 94 55 15
-0.09 0.07 0.35468015 -0.41389418 0.10185739 -0.9046086 97 52 12
-0.09 0.06443641 0.36 -0.30227366 -0.90256774 -0.30659765 88 78 64
-0.09 0.07 0.36608672 -0.1536707 -0.10206399 0.98283684 55 37 25
-0.09 0.07 0.3741319 -0.0011373281 -0.015801895 -0.9998745 55 37 25
-0.09273903 0.08 0.01 0.9143493 0.1323821 0.38267523 48 39 35
-0.09 0.08 0.0072610024 0.3248701 0.06805953 0.94330657 48 39 35
-0.09 0.08 0.019559512 0.7541647 -0.49826658 -0.4277453 40 31 26
-0.09 0.074902646 0.04 0.22701569 -0.7353073 0.6385821 49 30 22
-0.09 0.08 0.044186298 0.05806265 -0.4060244 0.91201586 40 30 24
-0.09 0.07012673 0.05 0.35290664 0.789088 -0.5027892 61 39 31
-0.09092903 0.08 0.06 0.935383 0.3523728 -0.0298672 60 42 37
-0.09 0.077584535 0.06 0.675305 0.7361988 -0.044435505 60 42 37
-0.09304329 0.08 0.07 0.8976525 -0.43895125 0.039265007 53 47 45
-0.09214295 0.08 0.08 0.9935585 -0.09946289 0.05430084 66 26 10
-0.09513252 0.08 0.09 0.9604504 -0.27482277 0.044804875 70 31 14
-0.093164444 0.08 0.1 0.9962756 -0.05955892 -0.062351044 57 29 20
-0.093318634 0.08 0.11 0.9635134 -0.26552925 -0.03370669 83 63 55
-0.09188988 0.08 0.12 0.9172314 -0.3852656 -0.10127694 62 38 28
-0.09181755 0.08 0.13 0.706431 -0.67430747 -0.21509239 89 77 73
-0.09 0.08 0.13037315 -0.17811379 -0.28403684 -0.9421245 89 77 73
-0.09570518 0.08 0.2 -0.72039586 -0.6935631 0.0 81 60 46
-0.09 0.0740506 0.21 -0.07785295 -0.89281666 0.44364098 64 39 32
-0.09027886 0.08 0.22 0.19754298 -0.7404396 0.6424375 75 45 38
-0.09 0.08 0.21972114 -0.0037101153 -0.7466061 0.665256 75 45 38
-0.09 0.08 0.25301266 0.006986266 0.00973568 -0.9999282 55 45 41
-0.09 0.07517105 0.32 -0.5308999 0.5831818 0.614853 44 24 15
-0.09 0.08 0.3151711 -0.21076597 0.24219704 0.9470577 44 24 15
-0.09 0.075336225 0.36 -0.48683116 0.8734571 0.008259636 131 72 9
-0.09 0.08 0.37399614 -0.020970907 -0.02764381 -0.9993978 64 41 26
-0.09426346 0.09 0.01 0.92563814 0.30301276 0.22666572 44 37 33
-0.09 0.09 0.005736509 0.30299857 -0.04207897 0.9520616 44 37 33
-0.09 0.09 0.01426349 0.23535012 -0.18651891 -0.9538454 44 37 33
-0.09 0.08946411 0.05 -0.55465263 -0.007075388 0.83205193 42 43 62
-0.09043679 0.09 0.05 -0.1335421 -0.50244236 0.8542354 42 43 62
-0.09 0.09 0.050363604 -0.6248758 -0.1748714 0.7608878 42 43 62
-0.094370805 0.09 0.06 0.6088101 -0.6195427 -0.49549678 45 32 25
-0.09 0.09 0.06437078 0.08092599 -0.36934924 -0.92576027 45 32 25
-0.09 0.08304329 0.07 0.53045654 -0.84379846 -0.0813638 53 47 45
-0.09 0.09 0.07952546 0.3671303 -0.2219534 0.90330064 66 45 36
-0.090474546 0.09 0.08 0.4910987 -0.45547903 0.74253684 66 45 36
-0.09197883 0.09 0.09 0.93336195 -0.34107715 0.1118115 63 46 39
-0.091025695 0.09 0.1 0.797496 -0.59476715 -0.10125293 83 59 54
-0.09 0.09 0.10608027 0.5502452 -0.81918997 -0.16173442 60 35 23
-0.09 0.088982925 0.11 0.15626869 -0.86653745 -0.47401792 60 35 23
-0.09 0.08280022 0.12 0.56312686 -0.78563416 -0.25625598 62 38 28
-0.09 0.080224305 0.13 -0.3927112 -0.87122625 -0.29452127 89 77 73
-0.09 0.080676496 0.22 0.3947498 -0.538082 0.7447418 75 45 38
-0.09 0.08364975 0.23 -0.2599609 -0.82554686 0.5008919 72 58 51
-0.094936065 0.09 0.24 0.66313636 -0.4523505 0.59634656 34 29 25
-0.09 0.09 0.23506396 0.40931544 -0.20449644 0.88918054 34 29 25
-0.09 0.09 0.2527483 0.020293484 0.03106657 -0.99931127 46 35 27
-0.09 0.09 0.31350458 -0.45903274 -0.037639745 0.88762164 83 78 87
-0.09 0.09 0.3735782 -0.018322608 0.0026912019 -0.9998285 71 47 26
-0.09 0.1 0.0076677366 -0.059597615 0.1552085 0.9860824 36 26 22
-0.09 0.1 0.012332263 0.17893113 0.13926628 -0.9739551 36 26 22
-0.09 0.094370805 0.06 0.15663871 -0.9825665 -0.100137375 45 32 25
-0.09488953 0.1 0.08 0.8327297 0.12042993 0.5404238 68 36 26
-0.09 0.1 0.07511045 0.093915306 0.2831969 0.9544524 68 36 26
-0.09871147 0.1 0.09 0.44099095 -0.888599 -0.1261699 57 36 28
-0.09 0.1 0.086761855 0.21841423 0.13660835 -0.9662471 56 26 12
-0.09 0.09227402 0.09 0.54149437 -0.7868083 -0.2961698 63 46 39
-0.09 0.09081612 0.1 0.28855315 -0.95058846 -0.11453678 83 59 54
-0.09933868 0.1 0.24 0.45998085 0.38854998 0.7984025 44 28 21
-0.09 0.1 0.23587902 0.36944073 -0.061210103 0.92723614 32 24 19
-0.09 0.1 0.25212383 0.0038426036 0.0012437889 -0.99999183 44 35 28
-0.09731537 0.1 0.32 0.69135475 -0.4456386 0.5687133 47 29 17
-0.09 0.1 0.31584537 0.45316783 -0.28517658 0.84457874 67 49 36
-0.09731575 0.1 0.33 0.8260185 -0.55720687 0.084934615 49 28 12
-0.09968331 0.1 0.34 0.76226795 -0.6458954 0.042031858 93 53 11
-0.09775604 0.1 0.35 0.84285694 -0.5362897 -0.044559244 106 62 21
-0.09875839 0.1 0.36 0.7623943 -0.60471123 0.23038928 128 74 15
-0.09 0.1 0.37370014 0.0076591386 -0.04590582 -0.9989164 72 44 18
-0.09 0.11 0.0050680763 -0.039672054 0.066576965 0.9969923 33 26 22
-0.09573021 0.11 0.02 -0.3227984 0.08122792 -0.9429757 48 36 28
-0.09 0.11 0.016423507 -0.17186794 0.26236922 -0.9495387 30 23 18
-0.096782684 0.11 0.04 -0.9461033 -0.24317335 -0.21390495 54 27 14
-0.09 0.105322875 0.07 0.12837996 0.6591912 0.7409356 81 52 42
-0.09 0.11 0.06532285 -0.025656281 0.3693964 0.9289177 81 52 42
-0.098683015 0.11 0.08 0.71810883 -0.048196007 -0.6942599 74 34 18
-0.09 0.11 0.08651744 0.07703417 -0.18188511 -0.9802977 73 38 26
-0.09490868 0.11 0.18 0.9559758 -0.29050955 0.041406255 72 35 20
-0.09 0.105091326 0.18 -0.038186744 0.9782845 0.20371853 72 35 20
-0.09 0.11 0.17509131 0.0 0.09577131 0.99540335 72 35 20
-0.09 0.11 0.18995993 -0.17766947 0.75921875 -0.6261154 55 31 20
-0.09349182 0.11 0.2 0.96753657 -0.0532232 -0.24706326 62 29 17
-0.09 0.10650818 0.2 -0.06592251 0.93379503 -0.35168314 62 29 17
-0.09 0.11 0.19007178 -0.11361861 0.8614149 0.4950305 55 31 20
-0.09 0.11 0.20349184 0.0 -0.14912985 -0.98881763 62 29 17
-0.095265195 0.11 0.23 -0.8242876 0.3067707 0.47585887 34 25 21
-0.09 0.11 0.23673539 -0.3549516 -0.13785094 0.92466563 30 21 14
-0.09 0.11 0.25276855 -0.07058164 -0.2684003 -0.9607182 39 31 26
-0.090904236 0.11 0.32 0.5451344 -0.46960202 0.69447994 93 79 66
-0.09 0.11 0.31931224 0.30331394 -0.34674385 0.8875637 93 79 66
-0.091393664 0.11 0.33 0.89719 -0.4412318 0.019095795 75 61 48
-0.09097046 0.11 0.34 0.88175124 -0.47132236 -0.019235563 81 62 46
-0.091200635 0.11 0.35 0.87596226 -0.4813772 0.03108235 69 46 26
-0.091807865 0.11 0.36 0.85327005 -0.516343 0.072938934 86 54 25
-0.09354363 0.11 0.37 0.8013728 -0.5531744 -0.22759555 59 39 20
-0.09 0.11 0.37174684 0.09591286 -0.22544815 -0.9695225 59 39 20
-0.09 0.12 0.005428573 0.03217475 -0.035524573 0.99885076 34 26 23
-0.091849975 0.12 0.02 0.13768627 -0.081291236 -0.98713434 23 23 20
-0.09 0.11952294 0.02 0.043895636 -0.038071647 -0.99831045 23 23 20
-0.09 0.12 0.020264277 -0.062253505 -0.045878023 -0.99700534 23 23 20
-0.09627655 0.12 0.05 -0.9437788 0.1027057 0.3142183 64 40 28
-0.09 0.12 0.056029815 -0.35059324 -0.095937766 0.9316009 82 49 41
-0.09 0.116029814 0.06 -0.5302736 0.47248554 0.7039654 82 49 41
-0.09871902 0.12 0.06 0.8072771 0.5499243 -0.21421237 60 24 12
-0.099792026 0.12 0.07 0.81901014 0.57351995 0.017240059 85 59 50
-0.099150546 0.12 0.08 0.8838472 -0.278513 -0.3758253 88 60 49
-0.09 0.12 0.08522378 0.15228355 -0.15722586 -0.97575086 75 34 18
-0.09 0.11490867 0.18 0.15962532 -0.80188113 0.5757659 72 35 20
-0.09 0.12 0.18603815 0.10106931 -0.1907229 0.976427 59 28 16
-0.098954774 0.12 0.19 -0.42228264 0.5079419 0.7507812 45 26 20
-0.09 0.11005875 0.19 0.116685815 0.94339514 -0.31046742 55 31 20
-0.09060341 0.110600814 0.19018085 0.0 0.7196036 0.6943851 55 31 20
-0.09 0.11349182 0.2 -0.117350735 -0.8619108 -0.49329355 62 29 17
-0.09 0.12 0.19396184 -0.3854547 -0.24981311 -0.8882669 59 28 16
-0.09541794 0.12 0.2 -0.9676881 -0.22091074 -0.12156586 71 48 39
-0.095317 0.12 0.21 -0.9717577 -0.017485341 0.23533206 82 70 66
-0.09 0.12 0.21545675 -0.02195736 0.25330678 0.9671368 38 29 24
-0.09 0.115456775 0.22 0.07091347 0.8907194 0.448988 38 29 24
-0.09 0.115546115 0.23 -0.02928408 0.9846805 -0.1718919 51 38 33
-0.09 0.12 0.23414163 -0.18829265 -0.11445285 -0.97542113 51 38 33
-0.097737655 0.12 0.24 -0.9541589 -0.17248145 -0.24460363 43 32 28
-0.09 0.1129908 0.24 -0.2811407 -0.9029923 0.32490733 30 21 14
-0.09 0.114498064 0.25 -0.19454055 -0.9719253 -0.13234474 39 31 26
-0.09598877 0.12 0.25 -0.6531 -0.5471542 -0.523529 48 37 30
-0.09 0.111790314 0.32 0.77754045 -0.4634584 0.42501435 93 79 66
-0.09 0.112612836 0.33 0.84865755 -0.52848065 -0.022104258 75 61 48
-0.09 0.11160591 0.34 0.8194716 -0.57311964 -0.00039996192 81 62 46
-0.09 0.112070695 0.35 0.81694597 -0.57628995 0.022117298 69 46 26
-0.09 0.11235138 0.36 0.7387255 -0.6722022 0.049283165 86 54 25
-0.09 0.1133448 0.37 0.44561473 -0.59195244 -0.6715801 59 39 20
-0.09 0.13 0.005844282 0.026391724 -0.35280576 0.9353243 37 32 28
-0.09 0.13 0.018725269 0.016789375 -0.5422224 -0.84006727 25 22 17
-0.094101794 0.13 0.02 -0.6365813 -0.007319804 -0.7711749 25 22 17
-0.09 0.12207168 0.02 -0.22138835 -0.074429765 -0.9723412 23 23 20
-0.09418068 0.13 0.03 -0.9908817 -0.040412743 -0.12853111 37 16 5
-0.09554314 0.13 0.04 -0.91260153 0.40507978 -0.05539649 68 41 36
-0.09596985 0.13 0.05 -0.9741258 0.22237264 -0.04036431 83 47 34
-0.09 0.12397018 0.06 -0.25939578 -0.7222407 0.6411569 82 49 41
-0.09634201 0.13 0.06 -0.97194195 0.20664044 0.11237702 78 53 44
-0.09 0.13 0.065727375 -0.08138262 -0.22277302 0.9714675 62 35 25
-0.09404549 0.13 0.08 0.58186525 0.15283525 -0.79879546 96 58 34
-0.09 0.13 0.08343236 0.23832954 -0.12406809 -0.9632269 96 58 34
-0.09169266 0.13 0.17 0.72633326 0.3949649 0.5625324 66 38 28
-0.09 0.124975815 0.17 0.75949234 0.44060186 0.47858268 70 38 26
-0.09 0.13 0.16863185 0.5341497 -0.009657844 0.8453347 66 38 28
-0.09529709 0.13 0.18 0.9517072 -0.24205253 0.18884927 44 40 70
-0.09 0.12616326 0.18 0.75426835 0.60679054 0.2507678 52 30 21
-0.09626541 0.13 0.19 0.49865025 -0.61941594 -0.6063595 69 33 20
-0.09 0.13 0.19276892 0.41205108 -0.07123102 -0.9083722 72 35 23
-0.09 0.13 0.21446928 0.25057662 0.20735174 0.94563025 62 29 17
-0.09 0.13 0.23197967 -0.15928526 -0.08022686 -0.9839674 55 40 34
-0.09 0.13415574 0.01 0.027731542 -0.97611433 0.21548027 37 32 28
-0.09604599 0.14 0.01 -0.9584145 -0.002553877 0.28536832 44 35 30
-0.09536468 0.14 0.02 -0.9839611 -0.17835774 0.0030044795 72 44 35
-0.09597343 0.14 0.03 -0.91421914 0.3752387 0.15296844 62 36 24
-0.09 0.14 0.03557276 -0.4314147 0.28475505 0.856035 65 42 37
-0.09 0.13557273 0.04 -0.28528717 0.94889474 0.13494425 65 42 37
-0.09 0.13557655 0.05 -0.24722657 0.96881205 -0.016799936 84 52 37
-0.09 0.13584252 0.06 -0.13243568 0.9400198 0.31436214 76 60 51
-0.09 0.14 0.08252682 0.09612586 -0.43827787 -0.8936847 70 36 23
-0.09 0.13686104 0.17 0.91877323 -0.050470598 0.39154628 75 51 47
-0.09 0.1394944 0.18 0.787857 -0.6143378 -0.043247852 71 44 33
-0.09 0.13796043 0.19 0.78764063 0.041763104 -0.6147179 66 32 18
-0.097895205 0.14 0.21 0.47049776 0.38052255 0.7961372 52 36 17
-0.09 0.13550971 0.21 0.5283757 0.6343692 0.56426483 44 37 32
-0.09 0.14 0.20399892 0.32345295 0.61007655 0.7233152 65 32 18
-0.09020874 0.14 0.23 -0.44081816 -0.64812887 -0.62097365 46 35 29
-0.09 0.14 0.22960767 -0.50745714 -0.8082652 -0.29865468 46 35 29
-0.09 0.13954835 0.23 -0.30393538 -0.48527592 -0.8198357 46 35 29
-0.09647629 0.15 0.01 -0.89174503 0.21742088 0.39688653 47 39 34
-0.096185684 0.15 0.02 -0.9094866 0.30419642 0.28337017 62 33 22
-0.09 0.15 0.025142051 -0.33284345 0.37525928 0.86509866 63 50 47
-0.09 0.14514206 0.03 -0.36182678 0.68534577 0.63196725 63 50 47
-0.096177444 0.15 0.06 0.68781424 -0.6221694 -0.37392095 76 57 48
-0.09611191 0.15 0.07 0.523877 -0.8303992 -0.18971032 84 63 54
-0.09 0.15 0.0740345 0.21462665 -0.61575633 -0.7581422 78 58 50
-0.09 0.14249215 0.08 0.11024612 -0.7044271 -0.70116204 70 36 23
-0.091341935 0.15 0.19 0.85098433 -0.17058052 0.4967172 50 27 18
-0.09 0.14415306 0.19 0.8563936 0.4072169 0.31743407 66 32 18
-0.09 0.15 0.18809028 0.3517055 -0.55708027 0.75230634 50 27 18
-0.09630493 0.15 0.2 0.6276104 0.287491 0.7235013 41 26 19
-0.09 0.14328338 0.2 0.36280075 0.8845816 0.2930716 65 32 18
-0.09 0.14368568 0.22 -0.292303 -0.80020154 -0.52367586 42 36 31
-0.097639084 0.15 0.22 -0.37344033 -0.65201443 -0.65986323 48 38 34
-0.09 0.15 0.21420957 -0.20893292 -0.38397563 -0.8993941 35 29 26
-0.09 0.16 0.0056465464 0.06324211 0.21874149 0.9737313 53 39 33
-0.0953453 0.16 0.0 -0.848901 0.21642584 0.48221055 24 18 15
-0.09 0.15564652 0.01 -0.09409468 0.94872725 0.30176607 53 39 33
-0.09 0.15566956 0.02 -0.11931328 0.88123494 0.45737222 71 42 31
-0.092656635 0.16 0.05 -0.051605713 -0.8449846 -0.532295 62 41 32
-0.09 0.16 0.04891237 -0.38021088 -0.5989023 -0.704809 62 41 32
-0.09 0.1588784 0.05 0.19422859 -0.8127275 -0.54931706 62 41 32
-0.09 0.15700448 0.06 0.09629543 -0.9177991 -0.3851908 65 30 16
-0.09 0.15287742 0.07 0.09321626 -0.88547504 -0.45524135 78 58 50
-0.09101875 0.16 0.13 0.961603 0.092411 -0.25841817 82 76 73
-0.09 0.15902016 0.13 0.43272305 0.8783201 -0.20323527 82 76 73
-0.09 0.16 0.12565292 0.748741 0.5492376 0.37111324 82 76 73
-0.09 0.16 0.1317581 0.68396807 0.3709324 -0.6281695 82 76 73
-0.09 0.15170677 0.19 0.2864178 -0.73065436 0.61976534 50 27 18
-0.09 0.16 0.19690317 0.13446376 -0.41858253 0.89816934 32 27 24
-0.09 0.16 0.21224615 -0.12055287 -0.47122133 -0.87373763 32 27 22
-0.09 0.17 0.006062435 -0.3879471 -0.019999031 0.9214646 48 40 36
-0.095192336 0.17 0.0 -0.88583064 -0.03549845 0.46264887 49 39 33
-0.09293259 0.17 0.02 0.47359344 -0.3278582 -0.8174462 64 42 34
-0.09019028 0.17 0.03 0.5010657 -0.8652836 -0.014748394 73 45 35
-0.09269966 0.17 0.04 0.4047672 -0.8923835 -0.19953741 74 46 38
-0.09 0.17 0.041457172 -0.14760569 -0.6159769 -0.773812 74 46 38
-0.09169113 0.17 0.12 0.994988 -0.092786394 0.037276987 81 66 62
-0.09 0.16423142 0.12 0.36783656 0.57451546 0.73118275 58 55 67
-0.09 0.17 0.115908496 0.6230444 -0.17916141 0.7613914 81 66 62
-0.09 0.17 0.12895861 0.87454826 -0.30345568 -0.37825912 77 68 65
-0.09 0.16829139 0.13 0.86997515 0.4874768 -0.07422707 77 68 65
-0.09 0.17 0.1311098 0.92362684 0.16855529 0.344242 77 68 65
-0.09217255 0.17 0.14 0.97191983 -0.23426107 0.022217533 86 74 72
-0.09 0.16739579 0.14 0.7453109 0.634675 -0.20420396 86 74 72
-0.09 0.17 0.14774184 0.76248604 0.5157597 -0.39064947 89 74 69
-0.097116016 0.17 0.19 0.5740816 0.8180992 0.03382299 40 32 27
-0.09 0.16644196 0.19 0.54818493 0.68741703 0.47639385 36 27 22
-0.09 0.17 0.18518773 0.19633928 0.4505218 0.87090814 36 27 22
-0.09 0.17 0.19471318 0.11180584 -0.0067187003 -0.99370736 36 27 22
-0.09 0.16419983 0.2 0.23213015 -0.96933496 0.08065586 32 27 24
-0.09 0.16229889 0.21 -0.16571395 -0.86125064 -0.48040214 32 27 22
-0.09 0.18 0.006171942 -0.2256506 0.1752377 0.9583181 42 34 29
-0.09564713 0.18 0.0 -0.79823357 0.27015412 0.53836787 17 18 28
-0.09 0.18 0.019506112 0.13754128 -0.09198897 -0.9862152 54 36 30
-0.09 0.17736359 0.02 0.26115063 -0.5238402 -0.81079704 54 36 30
-0.09 0.17009644 0.03 0.4306527 -0.90138495 0.0452042 73 45 35
-0.09 0.17131035 0.04 -0.28903088 -0.93738496 -0.19434641 74 46 38
-0.09 0.17308418 0.12 0.582116 -0.8118631 -0.044936124 81 66 62
-0.09 0.172248 0.14 0.5030551 -0.8613478 0.07082009 86 74 72
-0.09395805 0.18 0.18 0.2534661 0.016208773 0.96720845 34 32 38
-0.09 0.17943329 0.18 0.2754809 0.61043847 0.74261373 34 32 38
-0.09 0.18 0.17692026 0.71544766 0.61340904 0.3344607 34 32 38
-0.09 0.18 0.19375657 -0.26245221 -0.4587805 -0.8489047 40 32 27
-0.09 0.18564591 0.0 -0.1975819 0.76152176 0.61728925 24 22 27
-0.09 0.19 0.018299097 0.08792967 -0.071781605 -0.993537 44 36 31
-0.09129616 0.19 0.16 0.9580538 -0.058523964 0.2805491 79 69 66
-0.09 0.18853645 0.16 0.41482636 0.40053493 0.81700116 79 69 66
-0.09 0.19 0.1576454 0.57264245 -0.23309071 0.78597033 79 69 66
-0.09295418 0.19 0.17 0.9920355 0.056745272 -0.11245223 45 37 31
-0.09 0.18229553 0.17 0.76370823 0.5027719 0.4049322 58 46 38
-0.09 0.19 0.17831066 0.5081757 0.35469776 -0.7848229 46 31 22
-0.09 0.18394783 0.18 -0.17394651 -0.90341806 -0.39189076 34 32 38
-0.09 0.18336663 0.19 -0.2752166 -0.9257966 -0.25914565 40 32 27
-0.09869881 0.19 0.19 -0.35785213 -0.7816641 -0.51082593 32 25 20
-0.09796539 0.2 0.01 0.5955623 -0.46866503 -0.6524252 10 16 31
-0.09 0.2 0.015969785 0.3368794 -0.22271964 -0.91482687 41 34 29
-0.09 0.19313964 0.16 0.77956533 -0.35562652 0.5155654 79 69 66
-0.09 0.2 0.16335289 0.5000734 -0.22298153 0.83678305 61 52 48
-0.09329078 0.2 0.17 0.8821933 -0.4298453 0.19227044 42 33 28
-0.09 0.2 0.17761815 0.29426247 -0.3855412 -0.87450993 58 48 42
-0.09 0.21 0.009518733 0.5884986 -0.4079538 -0.698028 37 32 32
-0.09 0.20962372 0.01 0.5916177 -0.15523495 -0.7911325 37 32 32
-0.09 0.20409127 0.17 0.17893001 -0.9810746 -0.0740051 42 33 28
-0.09 0.22 0.0061176033 0.36023605 -0.18276733 -0.914782 11 17 29
-0.09 0.23 0.0033274041 0.032565173 -0.064575575 -0.9973813 10 21 42
-0.09 0.24 0.004078892 -0.018980818 0.045657143 -0.99877685 10 21 41
-0.09 0.25 0.004403091 0.02158029 -0.014312421 -0.99966466 9 21 40
-0.09 0.26 0.0037893304 0.008221235 0.03142719 -0.99947226 8 20 38
-0.09 0.27 0.0044379057 -0.05084144 0.015102626 -0.99859256 8 19 37
-0.09 0.28 0.004285876 0.0070899026 -0.015314531 -0.9998576 8 19 37
-0.09 0.29 0.0041900952 0.010503303 -0.0347111 -0.9993422 8 18 38
-0.09 0.3 0.003680958 -0.02001465 -0.028201314 -0.99940187 9 18 38
-0.09 0.31 0.003149967 -0.031951968 0.009894059 -0.99944043 10 19 41
-0.09 0.32 0.0042053927 0.035736904 0.0016475811 -0.99935985 10 18 40
-0.09 0.33 0.0031469334 0.00056693767 -0.027838858 -0.9996123 11 20 42
-0.09 0.34 0.0034031807 -0.008767719 0.01286564 -0.99987876 12 21 43
-0.09 0.35 0.0036984067 -0.035322685 0.0106433965 -0.99931926 12 21 42
-0.09 0.36 0.003747482 -0.008008992 -0.048049446 -0.99881285 11 20 42
-0.09 0.37 0.0024669166 -0.0049649845 0.011116774 -0.99992585 10 20 42
-0.09 0.38 0.0034369472 -0.029286299 0.013459978 -0.9994804 10 18 40
-0.09 0.39 0.0032245072 -0.0012711147 0.042278897 -0.99910504 9 17 39
-0.09 0.4 0.0039261915 -0.013012686 0.028989395 -0.999495 8 16 37
-0.09 0.41 0.0036038386 -0.011777813 -0.054306142 -0.99845487 8 16 36
-0.09 0.42 0.0032400584 -0.013935607 -0.026923925 -0.9995403 8 15 35
-0.09 0.43 0.002575112 -0.0149444975 0.026364965 -0.9995407 8 15 35
-0.09 0.44 0.003527898 0.026874663 0.038912714 -0.99888116 9 15 35
-0.09 0.45 0.0037492663 -0.0067936657 0.01654295 -0.9998401 8 16 36
-0.09 0.46 0.0039674146 0.009270246 -0.056823738 -0.9983412 8 16 35
-0.09 0.47 0.0025999814 -0.009505965 -0.000929564 -0.9999544 8 16 35
-0.09 0.48 0.0031816403 0.022030886 0.055752918 -0.9982015 8 17 36
-0.09 0.49 0.0037509308 -0.010969067 0.022031594 -0.9996971 8 17 36
-0.09 0.5 0.0039615463 0.037461422 0.010892477 -0.9992387 8 17 35
-0.09 0.51 0.003836046 0.010465651 -0.06969465 -0.9975135 7 16 36
-0.09 0.52 0.002463752 0.005131614 0.05071542 -0.99869996 7 16 36
-0.09 0.53 0.0037049395 -0.0072019887 0.015613479 -0.9998522 7 16 36
-0.09 0.54 0.0033635197 0.03284145 0.025053965 -0.9991465 7 16 36
-0.09 0.55 0.0035409397 0.001179923 -0.0012355698 -0.99999857 7 16 36
-0.09 0.56 0.0033503694 -0.030117845 -0.043324847 -0.998607 7 16 37
-0.09 0.57 0.0032804685 -0.028399901 -0.025029182 -0.99928325 7 16 38
-0.09 0.58 0.0021697455 -0.014579567 0.047379535 -0.99877053 7 16 38
-0.09 0.59 0.0035429185 0.07709305 0.034157135 -0.9964386 7 17 38
-0.09 0.6 0.0035937128 0.005416436 -0.011836214 -0.9999153 8 17 38
-0.09 0.61 0.0033440802 -0.033219654 -0.00028303513 -0.99944806 8 17 40
-0.09 0.62 0.0034063046 -0.046269152 -0.030697647 -0.9984572 9 17 40
-0.09 0.63 0.0024491595 -0.019421441 0.005141907 -0.9997982 10 17 40
-0.09 0.64 0.0032276674 0.043995358 -0.007221666 -0.9990056 9 17 41
-0.09 0.65 0.0027941102 -0.0341155 0.016410071 -0.99928313 9 18 41
-0.09 0.66 0.003344407 0.029027654 0.07742116 -0.99657583 10 18 42
-0.09 0.67 0.0042371233 -0.0009803185 -0.012715193 -0.9999187 10 18 41
-0.09 0.68 0.0031854964 -0.019951023 -0.03817778 -0.9990718 10 19 40
-0.09 0.69 0.0029347301 0.07309395 0.003712977 -0.99731815 10 19 40
-0.09 0.7 0.0029838232 -0.018913224 -0.019822346 -0.9996246 9 18 39
-0.09 0.71 0.0034435997 0.021562692 0.075954795 -0.9968781 8 16 38
-0.09 0.72 0.0040804595 -0.019235894 -0.06904685 -0.99742794 9 18 40
-0.09 0.73 0.0018765822 -0.037583414 -0.027373696 -0.9989185 12 19 42
-0.09 0.74 0.0029151272 0.07469466 0.09770389 -0.9924085 12 20 47
-0.08 -0.75 0.0032684023 -0.029155046 0.0002116545 -0.9995749 32 65 151
-0.08 -0.74 0.0032710026 -0.017044509 0.06791358 -0.9975456 36 71 155
-0.08 -0.73 0.0037874037 0.07929699 -0.0027409587 -0.9968473 39 74 162
-0.08 -0.72 0.0035078735 0.012577612 -0.027244331 -0.9995497 38 74 165
-0.08 -0.71 0.0033694783 -0.066690445 0.035210483 -0.99715227 41 75 173
-0.08 -0.7 0.0037161976 -0.012467274 -0.017150488 -0.9997752 46 82 180
-0.08 -0.69 0.0038748586 0.0003424951 0.027675271 -0.9996169 52 88 183
-0.08 -0.68 0.003739639 0.058977902 0.01563881 -0.99813676 58 95 187
-0.08 -0.67 0.00422627 -0.07659554 -0.047573883 -0.9959266 62 101 190
-0.08 -0.66 0.002791862 -0.03045077 -0.040527962 -0.99871427 66 103 194
-0.08 -0.65 0.002765451 0.068383336 0.061867747 -0.995739 64 99 192
-0.08 -0.64 0.003720631 0.0049236733 -0.00795896 -0.9999562 52 85 178
-0.08 -0.63 0.003146514 0.014613212 0.07274991 -0.99724317 44 76 165
-0.08 -0.62 0.0040088673 -0.021959078 -0.027196506 -0.9993889 35 65 150
-0.08 -0.61 0.0030876196 -0.028590122 0.016498206 -0.99945503 29 59 135
-0.08 -0.6 0.0036647925 0.018362312 0.028805653 -0.99941635 26 53 125
-0.08 -0.59 0.0040550805 0.04275647 0.026978055 -0.99872124 26 53 125
-0.08 -0.58 0.0039660074 -0.014671757 -0.016885195 -0.9997498 30 58 134
-0.08 -0.57 0.0035548627 0.002661426 -0.061671633 -0.99809295 36 62 144
-0.08 -0.56 0.0029822714 0.03958854 0.021492079 -0.99898493 40 67 151
-0.08 -0.55 0.003702296 0.015090466 0.014546918 -0.9997803 40 68 153
-0.08 -0.54 0.003957988 -0.03514059 0.07458485 -0.9965953 38 69 153
-0.08 -0.53 0.0046871398 -0.037738174 -0.023734903 -0.99900573 37 68 150
-0.08 -0.52 0.0033225152 0.03338805 0.009566844 -0.9993967 36 68 151
-0.08 -0.51 0.003989047 0.04957105 -0.0009999383 -0.9987701 34 68 150
-0.08 -0.5 0.003822368 -0.0062549715 -0.023289055 -0.9997092 34 68 151
-0.08 -0.49 0.0033167591 -0.035860468 -0.010040127 -0.9993064 34 69 154
-0.08 -0.48 0.0036647522 -0.008065622 0.053679477 -0.9985256 35 69 158
-0.08 -0.47 0.0042889514 0.034260098 0.00022761234 -0.99941295 36 70 162
-0.08 -0.46 0.0038722104 -0.005312732 -0.040523253 -0.99916446 36 71 165
-0.08 -0.45 0.0034476926 -0.04867812 0.035701137 -0.9981763 37 71 167
-0.08 -0.44 0.0039106556 -0.00018585844 -0.022123592 -0.9997552 38 71 168
-0.08 -0.43 0.0035354358 -0.03672071 0.06556666 -0.9971723 38 74 169
-0.08 -0.42 0.004246783 0.009523621 -0.005176342 -0.99994123 40 76 166
-0.08 -0.41 0.00392537 -0.02890187 0.020192243 -0.99937826 41 79 167
-0.08 -0.4 0.0041197687 -0.045694407 -0.017904004 -0.99879503 42 78 166
-0.08 -0.39 0.0036023548 -0.051067654 0.01510749 -0.99858093 40 78 167
-0.08 -0.38 0.0041467524 0.019207804 -0.009369085 -0.9997716 37 73 162
-0.08 -0.37 0.003764671 -0.036810443 0.086012855 -0.99561375 35 70 156
-0.08 -0.36 0.0043856804 -0.02563377 -0.010866806 -0.99961233 33 66 149
-0.08 -0.35 0.0039828205 -0.09016151 -0.07180503 -0.99333525 33 63 145
-0.08 -0.34 0.0028064037 0.036269013 0.019938989 -0.9991431 32 59 138
-0.08 -0.33 0.004339206 -0.017896535 0.058897115 -0.9981036 32 60 137
-0.08 -0.32 0.003906611 -0.030870015 -0.031953502 -0.99901253 33 60 137
-0.08 -0.31 0.0039899424 -0.028736863 -0.040591285 -0.9987625 31 58 134
-0.08 -0.3 0.003106215 0.051711477 0.0054584937 -0.99864715 26 55 127
-0.08 -0.29 0.003891969 0.038831223 0.056581497 -0.9976426 23 52 124
-0.08 -0.28 0.0036347122 0.004850589 -0.017514769 -0.99983484 23 53 124
-0.08 -0.27 0.0038905598 -0.013887024 0.011467884 -0.9998378 24 54 125
-0.08 -0.26 0.004046908 0.010056212 0.04422972 -0.99897075 25 57 129
-0.08 -0.25 0.0048926403 0.020562883 0.007250577 -0.9997623 28 59 134
-0.08 -0.24 0.004076868 -0.053384274 -0.024692023 -0.9982687 27 60 136
-0.08 -0.23 0.00413033 -0.02643948 -0.0036215046 -0.99964386 26 56 135
-0.08 -0.22 0.0044037784 -0.018366423 -0.003922256 -0.99982363 23 52 132
-0.08 -0.21 0.00396454 0.047166824 0.017143363 -0.9987399 22 50 124
-0.08 -0.2 0.0046457197 0.012614596 -0.005967273 -0.9999026 22 52 120
-0.08 -0.19 0.0036239058 -0.12750812 -0.041068155 -0.99098694 24 53 123
-0.08 -0.18 0.0036130657 0.00015936082 -0.037929848 -0.9992804 26 54 128
-0.08 -0.17 0.0038185383 0.057488576 0.040097266 -0.9975406 28 56 131
-0.08 -0.16 0.004436302 -0.041852426 0.012458935 -0.99904615 31 59 137
-0.08 -0.15 0.003562842 0.029102856 -0.043333147 -0.9986367 32 60 139
-0.08 -0.14 0.0037222216 0.009110155 0.03102578 -0.9994771 34 60 139
-0.08 -0.13 0.0045799 0.002120894 -0.0012166965 -0.999997 32 60 137
-0.08 -0.12 0.0034753028 -0.025494475 0.050068885 -0.9984203 32 60 135
-0.08 -0.11 0.004777004 0.013610044 -0.03640149 -0.9992446 30 58 131
-0.08 -0.1 0.0030774844 0.0018858289 -0.054653592 -0.99850357 29 56 128
-0.08 -0.09 0.0033138639 -0.004200835 0.07792252 -0.99695057 27 54 123
-0.08 -0.08 0.0038836824 -0.0015112575 0.038262904 -0.99926656 24 49 114
-0.086551055 -0.08 0.24 -0.60622 0.6890445 0.39713344 99 66 25
-0.08588379 -0.08 0.25 -0.69913715 0.71497554 -0.004148388 90 64 38
-0.086290814 -0.08 0.26 -0.794434 0.6066135 -0.029909793 84 52 20
-0.08662148 -0.08 0.27 -0.8472323 0.52394134 -0.08765234 74 45 15
-0.08842857 -0.08 0.28 -0.83944714 0.50903696 -0.19028889 84 51 18
-0.08 -0.07 0.0045577874 0.012709841 0.021486366 -0.9996883 21 43 103
-0.08 -0.07159409 0.19 -0.5313795 0.8137394 0.23550786 78 50 19
-0.08 -0.07 0.18679263 -0.31063628 0.73251724 0.6057422 78 50 19
-0.08 -0.07251038 0.2 -0.43983358 0.8980487 0.0074151736 78 45 13
-0.08 -0.07175278 0.21 -0.5809236 0.80865496 -0.09276269 70 39 12
-0.08021301 -0.07 0.22 -0.42827815 0.8949616 -0.1249862 95 56 16
-0.08 -0.07 0.21952909 -0.7346483 0.64637274 -0.2061412 95 56 16
-0.08 -0.07 0.22311068 -0.70634943 0.7070179 0.034585908 95 56 16
-0.08 -0.07022339 0.23 -0.8922724 0.45119968 0.016395148 106 72 28
-0.08 -0.0704966 0.24 -0.68102705 0.7322328 -0.006104974 106 71 38
-0.08030022 -0.07 0.25 -0.7438997 0.6567751 0.12352996 102 66 31
-0.08 -0.07 0.24334343 -0.8738076 0.4854514 -0.02823502 106 71 38
-0.08 -0.07 0.25074834 -0.75825936 0.61038524 0.229069 102 66 31
-0.08 -0.07288445 0.26 -0.7440191 0.667764 0.022953304 93 56 16
-0.08 -0.072337955 0.27 -0.6048639 0.79181087 -0.08470665 101 63 22
-0.08 -0.07120728 0.28 -0.6439659 0.7648816 0.016248506 96 61 27
-0.08 -0.07194611 0.29 -0.6420007 0.76666373 0.007862603 86 54 21
-0.08 -0.0712825 0.3 -0.5025405 0.8630096 -0.051647164 89 58 25
-0.08 -0.070766985 0.31 -0.4938821 0.86914194 0.025937187 89 60 22
-0.08 -0.07155807 0.32 -0.088172756 0.9937023 -0.069147274 94 60 19
-0.08 -0.07 0.3266782 -0.22100635 0.9212167 -0.3201811 91 60 21
-0.08 -0.06 0.0041824137 -0.051064063 -0.036606822 -0.9980242 22 42 103
-0.0826799 -0.06 0.16 0.6821027 0.5300377 0.5037817 65 39 14
-0.08 -0.062103957 0.16 0.16455509 0.8800558 0.44544744 65 39 14
-0.08 -0.06 0.15658137 0.43403557 0.5479106 0.7151274 65 39 14
-0.08 -0.06554787 0.17 0.018486513 0.9644695 0.26354674 60 36 12
-0.08 -0.06593109 0.18 -0.33093432 0.92676914 0.17771177 67 38 13
-0.08 -0.0697284 0.22 -0.89235514 0.444692 -0.07714521 95 56 16
-0.08 -0.06968971 0.25 -0.8032667 0.58102584 0.13104042 102 66 31
-0.08 -0.06873375 0.33 0.07325851 0.9321522 -0.35457793 91 60 21
-0.08 -0.06466621 0.34 0.1542517 0.9222853 -0.35439557 101 66 21
-0.08246658 -0.06 0.35 0.6128446 0.37305132 -0.6966019 75 44 15
-0.08 -0.06143326 0.35 0.16004486 0.84578186 -0.50895846 75 44 15
-0.08 -0.06 0.35158727 0.10056427 0.36947086 -0.9237847 75 44 15
-0.08 -0.05 0.0037027395 0.009621068 -0.0049517043 -0.99994147 22 42 106
-0.0837355 -0.05 0.15 0.4981142 0.57367545 0.6502144 68 38 16
-0.08 -0.05275345 0.15 0.5189524 0.32107714 0.79221076 68 38 16
-0.08 -0.05 0.14841215 0.46662426 0.35592982 0.80967635 68 38 16
-0.08722763 -0.05 0.17 0.87112314 0.48379177 -0.084202446 80 46 18
-0.08855652 -0.05 0.2 0.9758849 0.20378543 -0.07823121 77 44 18
-0.08875397 -0.05 0.21 0.99727434 -0.07329377 -0.008479111 80 46 16
-0.088439256 -0.05 0.22 0.86706114 -0.4973702 -0.028772224 105 68 22
-0.08805061 -0.05 0.23 0.85626495 -0.51393247 -0.051805098 108 70 22
-0.087366335 -0.05 0.24 0.86784714 -0.4957566 -0.032660685 103 66 21
-0.08719452 -0.05 0.25 0.8330814 -0.5530772 -0.008993534 102 64 22
-0.08716515 -0.05 0.26 0.80150735 -0.59755915 -0.02256102 98 61 22
-0.08667679 -0.05 0.27 0.81899756 -0.5728041 -0.033740602 103 64 22
-0.08628853 -0.05 0.28 0.8303237 -0.5568551 -0.021794125 97 59 20
-0.08618927 -0.05 0.29 0.81749725 -0.5758823 0.0076002735 107 70 31
-0.0865725 -0.05 0.3 0.769564 -0.6379231 0.028730499 94 56 21
-0.08685333 -0.05 0.31 0.71302557 -0.70112973 0.0034179497 124 83 26
-0.08638397 -0.05 0.32 0.7435638 -0.6686385 0.0059542423 110 70 24
-0.08727615 -0.05 0.33 0.77972466 -0.61789376 0.10117667 116 76 29
-0.0895771 -0.05 0.34 0.83732045 -0.5466523 -0.0081053795 111 72 24
-0.08701942 -0.05 0.35 0.8112094 -0.15892798 -0.5627444 110 71 30
-0.08 -0.05145752 0.36 0.46093607 0.49308607 -0.73783743 112 68 25
-0.08119026 -0.05 0.36 0.805761 0.14469418 -0.5742934 112 68 25
-0.08 -0.05 0.36145946 0.38077196 0.24701366 -0.89106506 112 68 25
-0.08 -0.04 0.004185767 0.031690795 -0.038787857 -0.9987448 24 43 107
-0.08 -0.044143144 0.14 0.20645986 0.7629434 0.6126106 34 25 16
-0.08 -0.04 0.13585688 0.28938457 -0.03344245 0.95662856 34 25 16
-0.08 -0.045809172 0.17 0.30332217 -0.93913513 -0.16130987 79 47 15
-0.08616562 -0.04 0.17 -0.9790158 0.2032719 0.014439666 72 44 22
-0.08 -0.04 0.16490975 -0.17541952 -0.3994353 -0.8998219 58 36 14
-0.08 -0.04 0.17510849 -0.14034681 -0.20570584 0.96849775 38 23 10
-0.083932646 -0.04 0.22 0.88972485 0.3387601 -0.30599228 93 56 18
-0.082812116 -0.04 0.23 0.98471916 0.15892063 -0.071220666 92 57 19
-0.08245171 -0.04 0.24 0.9966281 -0.024882084 -0.07818766 74 40 11
-0.08123711 -0.04 0.25 0.98346704 -0.1506458 -0.100490905 91 54 16
-0.08062027 -0.04 0.26 0.93411785 -0.35690174 -0.006710018 89 53 16
-0.081353076 -0.04 0.27 0.96856475 -0.24776134 0.022285081 109 70 23
-0.08107651 -0.04 0.28 0.9703974 -0.23933966 -0.032331854 108 69 21
-0.08067558 -0.04 0.29 0.9078406 -0.40979815 -0.088831104 105 67 21
-0.08 -0.04 0.29346848 0.8823287 -0.41570175 -0.22065401 105 67 21
-0.08 -0.042237855 0.3 0.715408 -0.6707709 -0.19559596 96 54 17
-0.08 -0.044795685 0.31 0.58657575 -0.8075327 -0.061804377 114 72 24
-0.08 -0.04494263 0.32 0.64345205 -0.7618276 0.074754365 110 69 23
-0.08 -0.0435186 0.33 0.70080525 -0.6938295 0.16574879 116 74 22
-0.08 -0.04 0.339498 0.8792509 -0.32450628 0.3487313 101 69 30
-0.08018013 -0.04 0.34 0.8368705 -0.46465862 0.28937885 101 69 30
-0.08139519 -0.04 0.35 0.9056706 -0.40734622 0.11760062 114 74 26
-0.08203476 -0.04 0.36 0.9769791 0.09676013 -0.19012985 98 62 22
-0.08 -0.04 0.3664526 0.88003623 0.36717975 -0.3011898 103 72 36
-0.08 -0.03 0.002735815 -0.032319423 -0.03236769 -0.99895334 26 46 112
-0.08 -0.035856858 0.14 0.04966073 -0.8854325 0.46210724 34 25 16
-0.08672829 -0.03 0.14 -0.93462765 -0.256782 0.24603684 42 28 19
-0.08 -0.035051804 0.15 -0.4020049 -0.9147566 0.0401554 54 28 11
-0.08580956 -0.03 0.15 -0.9994334 -0.0037269474 0.03345172 65 43 22
-0.08 -0.035090256 0.16 -0.20880155 -0.9261721 -0.3140179 58 36 14
-0.08612991 -0.03 0.16 -0.9957823 0.09172037 -0.0022284738 62 42 25
-0.08592361 -0.03 0.17 -0.95704204 0.13166563 0.2583306 64 43 25
-0.08 -0.03 0.17508656 -0.40204293 0.0972765 0.9104388 51 37 31
-0.083572924 -0.03 0.25 0.7946923 0.27734885 -0.53994614 96 55 16
-0.08 -0.03 0.25463876 0.68827677 0.29081646 -0.6646058 96 55 16
-0.08 -0.038462907 0.26 0.92020625 -0.39084783 0.021410787 89 53 16
-0.08 -0.03 0.26879844 0.852861 0.2848264 0.4376095 112 71 25
-0.0804911 -0.03 0.27 0.93798304 0.18987082 0.29006362 112 71 25
-0.08104339 -0.03 0.28 0.94625086 0.20120332 -0.25323227 111 72 32
-0.08 -0.03 0.28232738 0.79829615 0.11279302 -0.5916088 111 72 32
-0.08 -0.038385086 0.29 0.91929156 -0.37645897 -0.11481165 105 67 21
-0.08 -0.03 0.2994454 0.8431422 0.30767676 0.4409606 102 60 19
-0.08022774 -0.03 0.3 0.8848144 0.4640641 -0.041809775 102 60 19
-0.08 -0.03139343 0.3 0.960861 -0.26952806 0.064036585 102 60 19
-0.08 -0.03 0.3005956 0.83752924 0.3600711 -0.41096658 102 60 19
-0.081211016 -0.03 0.32 0.90847933 0.3976205 0.12869814 114 74 27
-0.08 -0.03246742 0.32 0.91874355 0.3177753 0.23436959 114 74 27
-0.08 -0.03 0.31721237 0.7388868 0.4834616 0.46937326 114 74 27
-0.08047493 -0.03 0.33 0.94145536 0.3371318 -0.0019796307 110 75 34
-0.08 -0.031229248 0.33 0.8753304 0.48273674 -0.02760427 110 75 34
-0.080775835 -0.03 0.34 0.8313438 0.49836355 -0.24596997 82 52 24
-0.08 -0.03 0.3420737 0.6157482 0.3089412 -0.7248513 82 52 24
-0.08 -0.03781296 0.35 0.89874417 -0.42251623 0.1172132 114 74 26
-0.08 -0.03 0.3565769 0.31218833 0.6922143 0.6506749 102 77 46
-0.08962196 -0.03 0.36 0.029760271 0.9967526 0.07482365 51 36 24
-0.08 -0.0380941 0.37 0.68478775 0.5048981 -0.52549374 103 72 36
-0.08996918 -0.03 0.37 0.28485075 0.9584436 0.015682464 47 33 22
-0.08 -0.031414412 0.38 0.42403233 0.8915951 -0.15891743 56 42 27
-0.088495106 -0.03 0.39 0.41938078 0.90555644 -0.063932255 37 27 17
-0.08 -0.03169365 0.39 0.33570552 0.93639314 0.102321364 30 23 20
-0.08762482 -0.03 0.4 0.39559704 0.5041057 -0.76771116 36 32 34
-0.08 -0.036228254 0.4 0.56010026 0.808912 -0.17874303 43 38 35
-0.08 -0.03 0.40265018 0.10223047 0.059707552 -0.99296725 53 46 39
-0.08 -0.02 0.0025637508 -0.06517485 0.26645738 -0.96164066 26 47 114
-0.08 -0.02 0.13697952 0.0 -0.17136855 0.985207 49 21 10
-0.08302048 -0.02 0.14 0.72992957 -0.034905348 0.68263054 49 21 10
-0.08 -0.023020478 0.14 -0.49177656 0.7999758 0.34379426 49 21 10
-0.08 -0.023818817 0.15 -0.2413644 0.96809417 0.067356616 62 51 47
-0.08 -0.024433747 0.16 -0.40853244 0.9127299 -0.0050385487 60 45 37
-0.08 -0.024053192 0.17 -0.5739659 0.7429289 0.34441215 58 43 34
-0.087668456 -0.02 0.26 0.8782092 0.45271462 -0.15426631 103 65 24
-0.08 -0.026709823 0.26 0.55862886 0.80749065 -0.18945359 110 67 21
-0.087316364 -0.02 0.27 0.89287317 0.45029598 -0.003327817 107 70 23
-0.087587126 -0.02 0.28 0.88161254 0.47091442 0.03160567 112 71 24
-0.08 -0.026686402 0.29 0.5408614 0.83757156 -0.07708992 105 63 18
-0.088047944 -0.02 0.29 0.8633449 0.5045767 0.0061577633 100 66 28
-0.08787407 -0.02 0.3 0.8781575 0.47809154 -0.016366307 108 70 26
-0.08 -0.02678276 0.31 0.5726464 0.81951183 -0.021828732 86 57 28
-0.087682344 -0.02 0.31 0.8339961 0.55079883 0.032726973 92 60 25
-0.08850334 -0.02 0.32 0.8791199 0.4765383 0.007716286 108 72 28
-0.08800514 -0.02 0.33 0.8485493 0.5291134 0.0017542975 96 64 25
-0.08846832 -0.02 0.34 0.79412085 0.5608294 0.23418473 84 56 20
-0.08 -0.02748619 0.35 0.12089915 0.9926402 0.0069890553 90 68 48
-0.08 -0.02 0.40278628 -0.009944223 0.0075549493 -0.99992204 66 61 57
-0.08 -0.01 0.0066430694 0.022725742 0.16647382 -0.98578393 26 48 110
-0.08 -0.015275879 0.14 0.31323376 -0.50549805 0.8039629 49 21 10
-0.08890305 -0.01 0.15 0.6437536 -0.41696173 0.6416574 45 25 18
-0.08 -0.01 0.14427751 -0.20347087 -0.2944521 0.93375456 36 38 66
-0.08974121 -0.01 0.19 0.6972754 -0.69139534 -0.18915471 117 72 22
-0.08649559 -0.01 0.2 0.8959961 -0.43213 -0.10224779 86 54 30
-0.08678276 -0.01 0.21 0.8458856 -0.5135602 0.1439913 84 50 29
-0.0896212 -0.01 0.26 0.8950816 -0.43127647 0.11326788 103 62 19
-0.08 -0.01 0.40288708 0.05050883 0.0037572475 -0.99871653 68 62 59
-0.08 0.0 0.0060545104 -0.051342662 -0.116970815 -0.99180734 24 45 102
-0.08412125 0.0 0.15 0.65946525 -0.5224314 0.5405285 53 43 39
-0.08 0.0 0.14645395 0.2752674 -0.3575258 0.8924142 53 43 39
-0.08446564 0.0 0.16 0.8808585 -0.46869564 0.06642832 60 43 34
-0.08671402 0.0 0.17 0.9283542 -0.35783723 0.10055371 54 41 34
-0.08524017 0.0 0.18 0.8916916 -0.4315496 -0.13656846 51 48 53
-0.08316368 0.0 0.19 0.91782844 -0.36425996 -0.15781513 124 82 31
-0.08261978 0.0 0.2 0.8748979 -0.48194024 -0.047825616 88 55 24
-0.08218078 0.0 0.21 0.93279916 -0.36039656 -5.322911e-05 95 55 15
-0.082952425 0.0 0.22 0.90324837 -0.42883164 0.015678763 117 72 25
-0.08173935 0.0 0.23 0.9259393 -0.37280086 -0.06046362 102 58 14
-0.0822638 0.0 0.24 0.85823977 -0.5132209 -0.0053662835 116 68 18
-0.08076225 0.0 0.25 0.8406259 -0.53487056 -0.08521499 134 86 27
-0.08069603 0.0 0.26 0.8711165 -0.48332408 0.086912714 103 60 20
-0.08295067 0.0 0.27 0.84255284 -0.5273756 0.109451845 122 82 25
-0.08216423 0.0 0.28 0.897981 -0.43826616 -0.039407697 128 88 36
-0.08258499 0.0 0.29 0.88420016 -0.46558568 0.03768446 137 91 27
-0.0830526 0.0 0.3 0.8690354 -0.4947017 -0.006901143 139 91 28
-0.08162781 0.0 0.31 0.8300778 -0.545644 -0.11508021 150 101 31
-0.08071464 0.0 0.32 0.77172047 -0.63546914 -0.025030587 120 74 24
-0.081557386 0.0 0.33 0.76087236 -0.64693016 0.05054354 149 102 30
-0.082075804 0.0 0.34 0.75627595 -0.6542515 -0.0012777897 148 100 30
-0.08077103 0.0 0.35 0.68970555 -0.7211097 -0.06562817 146 99 32
-0.08081642 0.0 0.36 0.75195307 -0.65908504 0.013173872 131 85 25
-0.081199415 0.0 0.37 0.77384615 -0.63285136 0.025714744 132 86 26
-0.0814872 0.0 0.38 0.8640208 -0.5008976 0.050690807 155 105 30
-0.08267509 0.0 0.39 0.8722234 -0.46933296 0.13766952 20 17 14
-0.084945604 0.0 0.4 0.85588115 -0.41589597 -0.30740523 54 47 42
-0.08 0.0 0.40274853 0.097799875 -0.093893245 -0.990767 54 47 42
-0.08 0.01 0.004951529 -0.021717085 -0.020385431 -0.9995563 23 43 98
-0.08 0.0035460663 0.15 0.17396761 -0.94707274 0.2697935 53 43 39
-0.08 0.003263626 0.16 0.059324823 -0.99684465 0.052738685 60 43 34
-0.08 0.0049772644 0.17 0.5355639 -0.83907866 0.095489815 110 87 62
-0.08 0.005203781 0.18 0.48733062 -0.87208205 -0.044516962 49 36 27
-0.08 0.0039678193 0.19 0.66095924 -0.74566084 -0.08439668 124 82 31
-0.08 0.0030718995 0.2 0.7440743 -0.66759324 0.025936972 88 55 24
-0.08 0.0050761416 0.21 0.82186925 -0.56586087 0.065821454 112 72 24
-0.08 0.005311279 0.22 0.8481404 -0.52873945 -0.03305102 93 49 17
-0.08 0.0041068266 0.23 0.83228564 -0.5511003 -0.05990855 102 58 14
-0.08 0.0033860016 0.24 0.7655752 -0.6372836 -0.08811488 116 68 18
-0.08 0.0012101745 0.25 0.81674 -0.57457983 -0.052856263 134 86 27
-0.08 0.0012632752 0.26 0.8332317 -0.5249417 0.17366987 103 60 20
-0.08 0.0059695435 0.27 0.8596966 -0.50737 0.059138656 123 83 25
-0.08 0.0050071715 0.28 0.8652243 -0.50133973 0.0067413403 132 88 28
-0.08 0.005774307 0.29 0.84177524 -0.5398037 0.005142957 140 95 27
-0.08 0.005639496 0.3 0.80279166 -0.5760344 -0.15398026 144 96 30
-0.08 0.0020864105 0.31 0.72569585 -0.6736806 -0.1397138 150 101 31
-0.08 0.00070274353 0.32 0.6280842 -0.7777871 0.0236129 120 74 24
-0.08 0.0015935516 0.33 0.5299944 -0.84719193 0.037035994 149 102 30
-0.08 0.0018793488 0.34 0.23793302 -0.9669019 -0.09213383 148 100 30
-0.08 0.00046211242 0.35 0.112195104 -0.9926886 -0.04451544 146 99 32
-0.08 0.0008476257 0.36 0.592765 -0.8041263 0.04483881 131 85 25
-0.08 0.0013262939 0.37 0.63436013 -0.77025723 0.06550562 132 86 26
-0.08 0.0032640838 0.38 0.8288358 -0.5401434 0.1458643 155 105 30
-0.08 0.0058467863 0.39 0.784722 -0.5964098 0.16883963 20 16 14
-0.08 0.008464203 0.4 0.38498226 -0.2656703 -0.8838597 49 51 63
-0.08 0.02 0.0055008843 -0.14135085 0.054542568 -0.9884559 18 35 79
-0.082957536 0.02 0.19 -0.48109773 -0.8065352 0.3435782 26 26 32
-0.08211884 0.03 0.01 -0.69223565 0.16013715 -0.7036803 21 31 62
-0.08 0.03 0.0068623247 -0.51483905 -0.2723817 -0.81286466 21 31 62
-0.08565506 0.03 0.14 -0.97983915 -0.07615833 0.18470286 56 28 19
-0.08127144 0.03 0.2 -0.70886004 -0.5332425 0.4617032 36 28 22
-0.08545219 0.03 0.21 -0.5398189 0.75136733 -0.37952957 47 36 29
-0.08984947 0.04 0.0 -0.67334574 -0.10525748 0.7317967 16 32 75
-0.08 0.03334549 0.01 -0.83658344 0.2102099 -0.5059051 21 31 62
-0.08 0.04 0.0081226565 -0.22869784 0.00559554 0.97348136 14 29 68
-0.08 0.03202629 0.0 -0.10103107 -0.9936772 -0.04897343 18 36 82
-0.08 0.04 0.01409099 -0.5360259 0.40781215 -0.7391654 14 29 68
-0.08655617 0.04 0.14 -0.96014583 0.1624284 0.22745766 81 70 66
-0.08531952 0.04 0.2 -0.7014167 -0.25337893 0.66619354 46 38 31
-0.08 0.04 0.20540842 -0.41488284 -0.15394263 0.8967574 42 34 30
-0.08 0.03243736 0.21 0.058563497 0.99825794 -0.007169654 16 16 21
-0.08 0.034313887 0.22 -0.29667407 0.9368192 -0.18534915 51 39 27
-0.084062725 0.04 0.23 0.30535144 0.6458162 -0.6997728 31 25 20
-0.08 0.037765503 0.23 0.03321284 0.83900625 -0.5431072 31 25 20
-0.08 0.04 0.2317374 -0.055389762 0.4078462 -0.911369 31 25 20
-0.08 0.04520805 0.0 0.1082311 0.930528 0.34986246 14 29 68
-0.08479194 0.05 0.0 0.67666936 -0.31469262 0.66564786 14 29 68
-0.08363983 0.05 0.02 -0.70376354 0.27458256 -0.6552261 40 32 28
-0.08 0.05 0.016756708 -0.46139106 0.23904923 -0.854385 40 32 28
-0.088161774 0.05 0.03 -0.9389386 0.063368954 -0.33819905 62 51 49
-0.08486237 0.05 0.13 0.6422478 0.50977135 0.57240796 57 52 52
-0.08 0.045137633 0.13 -0.20113897 0.97689086 -0.07230035 57 52 52
-0.08 0.05 0.12513763 0.24528494 0.10648887 0.96358466 57 52 52
-0.08 0.05 0.13769019 -0.0005311475 0.28014523 -0.9599575 66 58 55
-0.08396744 0.05 0.14 -0.25634003 0.14498372 -0.95565134 66 58 55
-0.08 0.0445916 0.21 -0.20250724 -0.7069282 0.67767495 42 34 30
-0.08 0.05 0.21520549 -0.24234943 -0.26053414 0.93455267 34 27 23
-0.08 0.05 0.23612943 -0.09625594 0.4489324 -0.88836616 58 39 18
-0.08 0.048917007 0.32 -0.5296639 0.71896994 0.45004264 37 28 21
-0.08 0.05 0.318917 -0.33299905 0.27324146 0.9024692 37 28 21
-0.08 0.049368743 0.33 -0.6170113 0.73505944 -0.281042 40 26 17
-0.08574112 0.05 0.34 -0.4991593 0.84985733 -0.16906364 63 36 7
-0.08 0.05 0.33112952 -0.68509555 0.5727796 -0.45007515 40 26 17
-0.085516356 0.05 0.35 -0.53657115 0.8438192 -0.0077817263 44 25 8
-0.08637207 0.05 0.36 -0.47392198 0.869225 0.14087527 86 66 44
-0.08 0.05 0.36604625 -0.46239078 0.49521884 0.73549515 60 41 25
-0.08 0.046107102 0.37 -0.51621586 0.6391481 -0.5700972 60 41 25
-0.08 0.05 0.37215707 -0.21987247 0.15328887 -0.9634099 60 41 25
-0.08 0.054791946 0.0 0.43809733 -0.7205107 0.5375268 14 29 68
-0.08 0.06 0.0056256307 0.17233638 -0.21449721 0.9614006 39 35 30
-0.08037674 0.06 0.02 -0.5479512 -0.009285322 -0.83645874 38 31 27
-0.08 0.06 0.019560011 -0.5494457 -0.00037387287 -0.8355293 38 31 27
-0.08966842 0.06 0.04 -0.95541424 0.28734782 -0.06793264 56 40 34
-0.08 0.055302124 0.1 0.0 0.9754578 -0.22018655 54 43 41
-0.08 0.06 0.09530214 -0.119241014 0.24998552 0.9608792 54 43 41
-0.08 0.06 0.10469785 -0.17864808 0.20014186 -0.96334213 54 43 41
-0.08 0.06 0.1260482 -0.19729616 0.17373198 0.9648271 56 48 46
-0.08 0.06 0.1339518 -0.31439495 -0.13624476 -0.93946433 56 48 46
-0.08811645 0.06 0.14 -0.8170061 0.28526556 -0.5011233 70 62 60
-0.08468338 0.06 0.22 0.71454823 0.03226101 0.6988419 31 24 19
-0.08 0.06 0.21531658 -0.11286577 -0.17969531 0.97722614 31 24 19
-0.08 0.05478714 0.24 0.045037005 0.81709176 -0.5747458 58 39 18
-0.08515961 0.06 0.24 0.7396258 0.5463163 -0.39305496 65 43 25
-0.08210114 0.06 0.25 0.6114931 0.35995358 -0.70463437 57 42 33
-0.08 0.05731102 0.25 0.42954528 0.6598942 -0.6164661 57 42 33
-0.08 0.06 0.25129455 0.19275641 0.14031895 -0.97116196 57 42 33
-0.08 0.06 0.31593236 -0.008268089 -0.28863975 0.95740205 38 28 22
-0.08 0.054227676 0.34 -0.43226248 0.9005619 -0.046231657 48 30 22
-0.08 0.05142822 0.35 0.04612356 0.99830574 0.03547205 41 24 12
-0.08 0.05320648 0.36 -0.24078968 0.95566136 0.16950424 48 26 4
-0.08 0.06 0.37370354 -0.04043527 0.11047862 -0.99305564 62 39 23
-0.08 0.07 0.0058426005 0.0065407525 0.00045201645 0.9999785 38 30 25
-0.08 0.07 0.017921321 -0.031467646 -0.079572886 -0.9963322 49 37 29
-0.08 0.066857226 0.04 -0.57678354 0.67294794 0.46310022 48 33 28
-0.08 0.07 0.036857218 -0.371861 0.07515014 0.92524153 48 33 28
-0.08 0.06502236 0.05 -0.29599977 0.9477386 0.11906198 56 42 37
-0.089734346 0.07 0.05 0.37166753 0.7570013 -0.5374126 61 39 31
-0.08 0.07 0.059184723 -0.7477107 0.5797619 -0.3237357 60 40 33
-0.0898674 0.07 0.07 -0.76436335 0.52989554 0.36736822 53 47 45
